ply
format ascii 1.0
element vertex 1057
property float x
property float y
property float z
property uchar red
property uchar green
property uchar blue
end_header
0.19985867 -0.0035641775 0.85600007 197 176 146
0.20216633 -0.0035639124 0.85600007 199 178 148
0.20399593 -0.0035553214 0.85400003 196 175 145
0.20605591 -0.0035508936 0.85300004 198 177 147
0.20811024 -0.0035464677 0.85200006 200 179 147
0.21065275 -0.003550367 0.85300004 200 179 147
0.21295063 -0.0035501036 0.85300004 198 177 145
0.21524823 -0.003549841 0.85300004 192 170 136
0.2178006 -0.0035537404 0.85400003 195 173 139
0.21958484 -0.003545157 0.85200006 194 172 136
0.22187884 -0.003544897 0.85200006 197 173 137
0.22390948 -0.0035404775 0.851 195 171 135
0.22646609 -0.0035443797 0.85200006 195 173 137
0.22849077 -0.0035399632 0.851 201 179 145
0.23050985 -0.003535548 0.85 198 176 142
0.23252329 -0.0035311352 0.84900004 196 174 140
0.23508422 -0.0035350414 0.85 201 179 145
0.23737112 -0.0035347908 0.85 201 179 143
0.23965773 -0.0035345412 0.85 198 177 139
0.24222884 -0.003538452 0.851 200 179 141
0.24509242 -0.003546521 0.85300004 201 180 140
0.24709657 -0.0035421194 0.85200006 200 179 141
0.24909508 -0.00353772 0.851 196 175 137
0.2510881 -0.0035333233 0.85 195 174 136
0.2533737 -0.0035330865 0.85 195 174 136
0.2559599 -0.0035370076 0.851 194 172 136
0.2582479 -0.003536775 0.851 195 173 137
0.26022965 -0.0035323892 0.85 194 170 133
0.26251474 -0.0035321624 0.85 196 172 135
0.2647998 -0.0035319382 0.85 194 173 135
0.26739898 -0.0035358719 0.851 194 173 135
0.26936966 -0.0035314988 0.85 194 172 136
0.27133495 -0.0035271295 0.84900004 197 175 139
0.27329484 -0.0035227644 0.84800005 197 175 139
0.27557427 -0.0035225567 0.84800005 200 179 141
0.27752608 -0.0035181984 0.84700006 195 174 136
0.27980292 -0.0035179984 0.84700006 195 174 136
0.28207976 -0.003517802 0.84700006 196 175 137
0.28469235 -0.003521762 0.84800005 194 173 135
0.28697202 -0.003521573 0.84800005 192 171 133
0.28925177 -0.0035213882 0.84800005 193 171 135
0.29153162 -0.0035212073 0.84800005 194 172 136
0.2934651 -0.0035168792 0.84700006 191 169 133
0.29539335 -0.0035125555 0.846 191 170 132
0.29766828 -0.0035123883 0.846 198 175 135
0.29994336 -0.003512226 0.846 195 172 132
0.30221865 -0.003512069 0.846 194 171 129
0.30485412 -0.0035160673 0.84700006 196 173 133
0.30713254 -0.00351592 0.84700006 194 171 131
0.30904594 -0.0035116265 0.846 193 172 132
0.31132224 -0.0035114894 0.846 193 172 132
0.31359887 -0.0035113578 0.846 195 174 134
0.3162492 -0.0035153828 0.84700006 195 174 134
0.31815308 -0.0035111115 0.846 196 175 137
0.32043076 -0.003510997 0.846 196 172 135
0.32232735 -0.0035067382 0.845 192 170 134
0.32460314 -0.003506636 0.845 192 171 133
0.32687938 -0.0035065396 0.845 199 175 138
0.32954556 -0.003510599 0.846 194 173 135
0.33182546 -0.003510516 0.846 191 170 130
0.33410585 -0.0035104384 0.846 194 173 133
0.33638674 -0.0035103678 0.846 193 172 132
0.33866823 -0.0035103043 0.846 192 171 131
0.34054735 -0.0035060984 0.845 192 171 129
0.34282735 -0.0035060493 0.845 194 173 131
0.3446996 -0.0035018576 0.84400004 193 172 130
0.34697825 -0.0035018232 0.84400004 193 172 132
0.34925756 -0.0035017957 0.84400004 192 171 129
0.35153762 -0.003501776 0.84400004 191 170 130
0.35381842 -0.0035017638 0.84400004 193 172 132
0.35610002 -0.0035017598 0.84400004 192 171 131
0.3579578 -0.0034976145 0.84300005 194 173 133
0.3606657 -0.0035017757 0.84400004 195 174 134
0.36294982 -0.0035017957 0.84400004 195 174 134
0.36566764 -0.0035059736 0.845 191 170 128
0.36708546 -0.003497713 0.84300005 192 171 129
0.3689315 -0.0034936098 0.84200007 190 169 127
0.37121403 -0.0034936646 0.84200007 192 169 129
0.37438482 -0.0035020276 0.84400004 191 166 130
0.37578228 -0.0034938015 0.84200007 180 149 118
0.378517 -0.0034980334 0.84300005 117 75 51
0.38080662 -0.0034981251 0.84300005 146 81 61
0.38491514 -0.0035148254 0.84700006 116 55 43
0.3899609 -0.003539836 0.85300004 97 56 42
0.39871976 -0.003598059 0.86700004 74 61 46
-0.03652793 -0.006634655 0.961 49 87 66
-0.032922752 -0.0064414586 0.933 113 60 45
-0.03012123 -0.00638633 0.9250001 118 46 32
-0.02742284 -0.0063449997 0.919 120 45 32
-0.024865493 -0.0063312775 0.91700006 121 47 32
-0.02234334 -0.0063244514 0.91600007 116 44 29
-0.019804876 -0.0063107116 0.91400003 124 52 37
-0.017201457 -0.006269346 0.90800005 129 59 44
-0.014679317 -0.006248685 0.90500003 120 51 33
-0.012186962 -0.0062349206 0.90300006 129 57 42
-0.009716228 -0.0062280525 0.90200007 125 49 34
-0.0072267605 -0.0062004616 0.89800006 121 45 30
-0.0047643823 -0.006179767 0.89500004 131 50 37
-0.0023183306 -0.0061590644 0.892 134 49 37
0.00011125874 -0.0061314492 0.8880001 136 49 37
0.002519053 -0.0061038258 0.88400006 139 50 38
0.0049106167 -0.0060830987 0.88100004 141 49 40
0.0072941137 -0.0060692695 0.87900007 200 104 95
0.009655663 -0.0060485266 0.87600005 198 103 90
0.011987081 -0.006020872 0.87200004 196 102 93
0.01431313 -0.006000114 0.869 214 139 120
0.016661169 -0.0059931586 0.86800003 227 174 151
0.01904753 -0.0060000033 0.869 215 182 151
0.021389982 -0.005993033 0.86800003 207 178 149
0.0237269 -0.0059860535 0.86700004 208 183 150
0.02611846 -0.0059928754 0.86800003 208 184 148
0.028515363 -0.0059996895 0.869 205 181 144
0.030917607 -0.006006496 0.87000006 206 182 145
0.03324865 -0.0059994855 0.869 202 181 143
0.035574123 -0.005992469 0.86800003 203 180 140
0.03785031 -0.0059785414 0.86600006 206 183 141
0.040208314 -0.0059784134 0.86600006 206 183 143
0.04246786 -0.0059644715 0.864 205 182 142
0.04487197 -0.005971232 0.86500007 205 182 142
0.047226764 -0.005971082 0.86500007 204 181 141
0.049581382 -0.0059709246 0.86500007 205 181 144
0.051935803 -0.0059707593 0.86500007 207 184 144
0.05422727 -0.0059636855 0.864 202 179 139
0.056513093 -0.0059566037 0.86300004 199 175 138
0.058793258 -0.0059495163 0.86200005 203 179 142
0.06120961 -0.0059562246 0.86300004 202 179 139
0.06370483 -0.005969828 0.86500007 205 182 142
0.06598159 -0.0059627187 0.864 200 177 137
0.06825267 -0.005955603 0.86300004 201 177 140
0.070518054 -0.0059484816 0.86200005 202 178 141
0.07286228 -0.005948255 0.86200005 204 180 143
0.07520623 -0.0059480206 0.86200005 201 177 140
0.07754992 -0.005947781 0.86200005 201 177 140
0.07989333 -0.0059475335 0.86200005 203 179 142
0.08223645 -0.0059472797 0.86200005 202 178 141
0.084481165 -0.0059401207 0.86100006 200 176 139
0.08682098 -0.005939855 0.86100006 201 180 142
0.08916049 -0.005939582 0.86100006 202 181 143
0.09160597 -0.005946202 0.86200005 203 182 144
0.09383858 -0.0059390194 0.86100006 202 181 143
0.09617715 -0.0059387293 0.86100006 203 182 144
0.09828655 -0.0059246384 0.859 202 181 143
0.1005019 -0.0059174406 0.85800004 204 180 143
0.10283132 -0.0059171333 0.85800004 203 179 142
0.105037846 -0.0059099253 0.85700005 199 175 139
0.10761441 -0.005923399 0.859 202 178 142
0.11007351 -0.0059299706 0.86 200 178 142
0.11253769 -0.005936537 0.86100006 202 178 142
0.11460665 -0.005922413 0.859 200 178 142
0.11666442 -0.0059082857 0.85700005 199 178 140
0.11898865 -0.0059079425 0.85700005 201 179 143
0.121170945 -0.0059007 0.85600007 200 178 142
0.12378026 -0.0059141335 0.85800004 201 179 143
0.12610607 -0.005913776 0.85800004 198 176 140
0.12858121 -0.005920306 0.859 199 177 141
0.13060416 -0.005906155 0.85700005 199 177 141
0.13292614 -0.0059057847 0.85700005 199 178 140
0.1352477 -0.0059054093 0.85700005 200 179 141
0.13740836 -0.00589814 0.85600007 201 178 138
0.13972643 -0.0058977576 0.85600007 200 177 137
0.14171223 -0.0058835917 0.85400003 202 179 139
0.14402412 -0.005883203 0.85400003 201 180 142
0.14650695 -0.005889699 0.855 196 175 137
0.14882073 -0.005889302 0.855 201 180 142
0.15113412 -0.0058889026 0.855 199 177 141
0.15326764 -0.005881612 0.85400003 200 179 141
0.15557756 -0.0058812066 0.85400003 197 176 138
0.1580719 -0.005887684 0.855 198 176 140
0.16019613 -0.0058803866 0.85400003 197 176 138
0.16231455 -0.0058730883 0.85300004 197 176 138
0.16442716 -0.005865787 0.85200006 196 175 137
0.16692536 -0.0058722533 0.85300004 198 176 140
0.16942854 -0.0058787167 0.85400003 197 175 139
0.17193675 -0.005885177 0.855 196 174 138
0.1738386 -0.005870986 0.85300004 197 175 139
0.17572923 -0.005856795 0.851 197 175 139
0.17760868 -0.005842605 0.84900004 197 175 139
0.18011266 -0.0058490587 0.85 201 179 145
0.18283623 -0.005862391 0.85200006 199 177 143
0.18513566 -0.00586196 0.85200006 200 178 144
0.18699472 -0.0058477675 0.85 200 178 144
0.18928798 -0.005847335 0.85 199 179 145
0.19158086 -0.005846902 0.85 195 174 142
0.19410151 -0.0058533465 0.851 197 176 144
0.19662717 -0.0058597894 0.85200006 196 175 143
0.19892439 -0.005859354 0.85200006 196 175 143
0.20122127 -0.005858918 0.85200006 197 176 146
0.20304008 -0.0058447304 0.85 193 172 142
0.20533086 -0.0058442964 0.85 199 178 148
0.20737709 -0.005836987 0.84900004 194 173 143
0.20966458 -0.005836555 0.84900004 199 178 146
0.21220136 -0.0058429963 0.85 200 179 147
0.21474321 -0.005849438 0.851 201 178 146
0.21703513 -0.005849006 0.851 199 177 143
0.21906902 -0.0058417036 0.85 190 168 134
0.22109725 -0.005834403 0.84900004 194 172 136
0.22311981 -0.0058271056 0.84800005 199 177 141
0.2254025 -0.005826681 0.84800005 196 174 138
0.22714792 -0.005812517 0.846 196 174 140
0.22915359 -0.005805228 0.845 201 179 145
0.23142743 -0.0058048107 0.845 199 177 143
0.23397763 -0.0058112657 0.846 200 178 142
0.23653302 -0.0058177225 0.84700006 194 172 136
0.23937549 -0.005831049 0.84900004 194 173 135
0.24165921 -0.00583064 0.84900004 199 178 140
0.24394278 -0.005830235 0.84900004 198 177 139
0.24593616 -0.005822967 0.84800005 193 172 134
0.24821663 -0.005822568 0.84800005 196 175 137
0.2502016 -0.0058153076 0.84700006 198 177 139
0.25247914 -0.005814918 0.84700006 197 175 139
0.25505728 -0.0058213966 0.84800005 194 172 136
0.25642684 -0.0058004204 0.845 197 173 136
0.2586986 -0.0058000437 0.845 195 171 134
0.26097026 -0.005799671 0.845 196 172 136
0.26386493 -0.005813029 0.84700006 191 169 133
0.26614183 -0.0058126654 0.84700006 190 169 131
0.26778486 -0.005798582 0.845 194 172 136
0.2697367 -0.005791368 0.84400004 195 173 137
0.27168316 -0.0057841595 0.84300005 195 174 136
0.2742741 -0.0057906792 0.84400004 195 174 136
0.27654287 -0.005790344 0.84400004 199 178 140
0.2788116 -0.0057900143 0.84400004 195 174 136
0.28074732 -0.0057828315 0.84300005 198 177 139
0.2826778 -0.0057756556 0.84200007 197 176 138
0.28494132 -0.005775346 0.84200007 194 172 136
0.28754598 -0.0057819006 0.84300005 192 170 134
0.28981242 -0.005781604 0.84300005 193 171 135
0.2917325 -0.0057744575 0.84200007 192 170 134
0.29364732 -0.005767318 0.841 197 173 136
0.29555693 -0.005760186 0.84000003 197 173 136
0.29852498 -0.005773634 0.84200007 198 175 135
0.30078954 -0.0057733757 0.84200007 198 175 135
0.3030543 -0.005773125 0.84200007 196 173 133
0.30495667 -0.0057660267 0.841 195 172 132
0.30721927 -0.0057657934 0.841 195 174 134
0.30948213 -0.005765569 0.841 196 175 135
0.3117453 -0.0057653524 0.841 195 174 134
0.31438214 -0.005772001 0.84200007 193 172 132
0.31702474 -0.0057786587 0.84300005 192 171 131
0.31929433 -0.0057784696 0.84300005 192 171 133
0.32080138 -0.005764582 0.841 194 173 135
0.3230664 -0.005764414 0.841 197 175 139
0.32571873 -0.0057711103 0.84200007 193 172 134
0.32798734 -0.005770962 0.84200007 194 173 135
0.33025643 -0.005770825 0.84200007 191 170 130
0.33213112 -0.005763845 0.841 191 170 130
0.33400095 -0.0057568755 0.84000003 192 171 129
0.33586594 -0.005749918 0.83900005 195 174 132
0.33812916 -0.005749826 0.83900005 195 174 132
0.3407987 -0.0057565975 0.84000003 194 173 131
0.3430659 -0.005756529 0.84000003 194 173 131
0.34533376 -0.005756472 0.84000003 196 175 133
0.34718847 -0.005749574 0.83900005 192 171 131
0.349455 -0.0057495413 0.83900005 192 171 131
0.35172236 -0.0057495222 0.83900005 189 168 128
0.35399044 -0.0057495157 0.83900005 193 172 132
0.35625932 -0.0057495213 0.83900005 196 175 135
0.3581018 -0.0057426896 0.83800006 191 170 128
0.36122975 -0.005756428 0.84000003 191 170 128
0.36350393 -0.005756476 0.84000003 192 171 129
0.36490822 -0.005742831 0.83800006 194 171 129
0.36674076 -0.005736054 0.837 192 168 128
0.36900976 -0.0057361443 0.837 195 170 137
0.3717234 -0.005743103 0.83800006 175 146 117
0.37399715 -0.005743223 0.83800006 136 73 53
0.37672108 -0.0057502124 0.83900005 147 78 60
0.37990326 -0.0057640704 0.841 121 61 46
0.3844608 -0.005798508 0.846 104 63 49
0.39224693 -0.0058809435 0.85800004 86 59 45
0.40515828 -0.0060388 0.88100004 91 64 50
-0.03660381 -0.0092716105 0.96300006 49 87 66
-0.033134345 -0.009040702 0.93900007 64 75 54
-0.030283926 -0.008954194 0.93000007 115 45 31
-0.02757193 -0.008896558 0.924 121 47 32
-0.02497386 -0.008867794 0.92100006 121 47 30
-0.022416428 -0.008848647 0.919 114 46 27
-0.019848136 -0.008819858 0.91600007 106 41 21
-0.017277166 -0.008781428 0.91200006 154 86 68
-0.014760361 -0.008762245 0.91 114 49 29
-0.012240899 -0.008733422 0.90700006 120 52 34
-0.009737732 -0.008704584 0.90400004 122 50 35
-0.0072428253 -0.008666107 0.90000004 125 51 36
-0.004775009 -0.008637249 0.897 126 49 36
-0.0023235192 -0.0086083785 0.89400005 127 46 33
0.00011163416 -0.008579495 0.89100003 130 48 35
0.0025304414 -0.008550603 0.8880001 133 48 36
0.0049328925 -0.008521698 0.88500005 136 49 37
0.0073189787 -0.008492783 0.882 138 49 39
0.009688691 -0.008463857 0.87900007 152 57 45
0.012014525 -0.008415661 0.874 194 99 87
0.014329544 -0.008377085 0.87000006 202 109 97
0.016661102 -0.008357757 0.86800003 188 97 84
0.019003617 -0.008348045 0.86700004 177 118 98
0.02134061 -0.008338324 0.86600006 219 178 151
0.023644706 -0.0083189625 0.864 207 176 147
0.025997996 -0.008318849 0.864 206 178 145
0.028384 -0.008328352 0.86500007 203 181 145
0.030775338 -0.008337844 0.86600006 206 185 147
0.03309548 -0.008328069 0.86500007 207 184 144
0.035451036 -0.008327913 0.86500007 205 182 142
0.037719037 -0.008308489 0.86300004 203 180 138
0.040022437 -0.008298685 0.86200005 205 182 142
0.042320237 -0.008288871 0.86100006 202 179 139
0.04471617 -0.008298298 0.86200005 206 183 143
0.04706279 -0.00829809 0.86200005 204 183 145
0.04940923 -0.008297871 0.86200005 207 183 146
0.05175548 -0.008297643 0.86200005 206 182 145
0.05403877 -0.008287777 0.86100006 200 176 139
0.056381904 -0.0082875285 0.86100006 199 175 138
0.058656614 -0.008277644 0.86 202 178 141
0.060925663 -0.008267751 0.859 202 178 141
0.06333634 -0.008277098 0.86 205 181 144
0.06552314 -0.008257563 0.85800004 205 181 144
0.06785697 -0.008257266 0.85800004 206 182 145
0.07010876 -0.008247336 0.85700005 208 184 147
0.0725239 -0.008256645 0.85800004 203 179 142
0.07485697 -0.008256321 0.85800004 204 180 143
0.0770998 -0.008246363 0.85700005 205 181 144
0.07942962 -0.008246022 0.85700005 206 182 145
0.08175914 -0.008245671 0.85700005 204 181 141
0.08399025 -0.008235689 0.85600007 203 182 144
0.08631648 -0.0082353195 0.85600007 202 181 143
0.088745944 -0.008244563 0.85700005 204 183 145
0.091286816 -0.008263416 0.859 206 185 147
0.09362027 -0.008263021 0.859 201 179 143
0.09595339 -0.008262616 0.859 199 178 140
0.09794293 -0.008233349 0.85600007 198 177 139
0.10015012 -0.008223312 0.855 199 178 140
0.10235155 -0.008213269 0.85400003 199 178 140
0.10466977 -0.0082128355 0.85400003 199 177 141
0.10711292 -0.008222011 0.855 199 177 141
0.10956117 -0.008231178 0.85600007 199 177 141
0.111753054 -0.008221106 0.855 202 178 142
0.11393915 -0.008211027 0.85400003 201 180 142
0.11625561 -0.008210557 0.85400003 197 176 138
0.11884939 -0.008229308 0.85600007 199 177 141
0.12102897 -0.0082192095 0.855 200 178 142
0.123347044 -0.00821872 0.855 201 179 143
0.12551773 -0.00820861 0.85400003 202 180 146
0.12783232 -0.008208107 0.85400003 200 176 140
0.12999414 -0.008197987 0.85300004 200 176 139
0.13215014 -0.008187863 0.85200006 199 178 140
0.1347738 -0.008206562 0.85400003 200 179 141
0.13692632 -0.008196426 0.85300004 202 181 141
0.13907304 -0.008186286 0.85200006 204 181 141
0.14104801 -0.008166536 0.85 204 181 141
0.1435177 -0.008175602 0.851 200 179 141
0.14616378 -0.00819427 0.85300004 200 179 141
0.14829808 -0.008184113 0.85200006 200 179 141
0.15024982 -0.008164346 0.85 201 180 142
0.1525493 -0.008163788 0.85 202 181 143
0.15503053 -0.008172829 0.851 205 181 144
0.15751679 -0.008181864 0.85200006 201 179 143
0.1594453 -0.008162088 0.85 194 172 136
0.1617432 -0.008161513 0.85 195 174 136
0.1638477 -0.008151336 0.84900004 196 175 137
0.16633777 -0.0081603555 0.85 196 175 137
0.16863446 -0.008159771 0.85 195 174 136
0.17113186 -0.008168783 0.851 197 176 138
0.17302291 -0.008148996 0.84900004 196 175 137
0.17510925 -0.008138807 0.84800005 194 173 135
0.1771898 -0.008128618 0.84700006 199 178 140
0.17968835 -0.008137619 0.84800005 197 175 139
0.18197736 -0.008137022 0.84800005 199 177 141
0.18426594 -0.008136423 0.84800005 201 179 145
0.18633421 -0.008126229 0.84700006 198 178 144
0.18884207 -0.008135222 0.84800005 199 179 145
0.1906788 -0.008115434 0.846 196 176 142
0.19318865 -0.008124424 0.84700006 201 181 147
0.19547275 -0.008123822 0.84700006 200 180 146
0.19798996 -0.008132808 0.84800005 201 180 148
0.20051222 -0.008141793 0.84900004 195 174 142
0.20256183 -0.0081316 0.84800005 197 176 144
0.20484723 -0.008130996 0.84800005 197 176 144
0.20664379 -0.008111216 0.846 198 177 145
0.20892319 -0.0081106145 0.846 191 170 138
0.2114519 -0.008119601 0.84700006 195 174 142
0.21398567 -0.008128586 0.84800005 196 175 145
0.21626952 -0.008127987 0.84800005 196 175 145
0.21829534 -0.008117806 0.84700006 200 177 147
0.22031544 -0.008107627 0.846 200 177 145
0.22206685 -0.00808787 0.84400004 196 174 140
0.22433878 -0.00808728 0.84400004 194 172 138
0.22607346 -0.0080675315 0.84200007 199 177 143
0.2280683 -0.008057369 0.841 198 176 142
0.2303314 -0.008056791 0.841 195 173 137
0.23314744 -0.008075375 0.84300005 194 173 135
0.23569475 -0.008084382 0.84400004 196 175 137
0.23852912 -0.0081029665 0.846 196 175 135
0.24052016 -0.0080928225 0.845 199 178 138
0.2430803 -0.008101837 0.846 196 175 137
0.24477558 -0.008082127 0.84400004 198 177 139
0.24704535 -0.008081576 0.84400004 200 179 141
0.24872418 -0.008061879 0.84200007 194 172 136
0.25098825 -0.008061338 0.84200007 195 173 137
0.25325215 -0.008060803 0.84200007 194 172 136
0.25521252 -0.0080507 0.841 189 167 131
0.25777972 -0.008059749 0.84200007 191 170 132
0.26035213 -0.008068804 0.84300005 194 172 136
0.26261836 -0.008068292 0.84300005 196 174 138
0.26519874 -0.008077358 0.84400004 198 177 139
0.26683375 -0.008057721 0.84200007 200 178 142
0.26877752 -0.008047661 0.841 199 177 141
0.2707159 -0.00803761 0.84000003 195 174 136
0.2732988 -0.008046705 0.841 196 175 137
0.2762148 -0.008065374 0.84300005 195 174 136
0.27848086 -0.008064915 0.84300005 196 174 138
0.28008085 -0.008045332 0.841 194 172 136
0.28200594 -0.008035325 0.84000003 195 173 137
0.2842641 -0.008034895 0.84000003 196 174 138
0.28652233 -0.008034475 0.84000003 195 173 137
0.28843695 -0.008024498 0.83900005 192 170 136
0.29034626 -0.008014534 0.83800006 192 170 134
0.29225034 -0.008004579 0.837 193 171 135
0.29450104 -0.008004199 0.837 197 173 136
0.29781562 -0.008032518 0.84000003 194 171 131
0.300432 -0.00804172 0.841 196 173 133
0.30233416 -0.00803181 0.84000003 195 172 132
0.3042312 -0.008021912 0.83900005 194 171 131
0.30612308 -0.008012026 0.83800006 195 172 132
0.30837786 -0.008011715 0.83800006 195 174 134
0.31063297 -0.008011415 0.83800006 191 170 130
0.31326178 -0.008020688 0.83900005 193 172 132
0.31552023 -0.008020414 0.83900005 191 170 130
0.31815785 -0.008029712 0.84000003 198 174 137
0.32003832 -0.008019906 0.83900005 196 175 137
0.3222979 -0.008019671 0.83900005 195 174 136
0.32417122 -0.008009893 0.83800006 192 171 133
0.32642904 -0.008009689 0.83800006 193 172 134
0.32868737 -0.008009498 0.83800006 196 175 135
0.33055127 -0.007999765 0.837 196 175 133
0.33201274 -0.00798049 0.83500004 193 172 130
0.33426455 -0.007980346 0.83500004 194 173 131
0.33651704 -0.007980218 0.83500004 195 174 132
0.3395815 -0.00799922 0.837 194 173 131
0.342249 -0.008008681 0.83800006 195 174 132
0.34410033 -0.007999044 0.837 194 173 131
0.34594697 -0.007989426 0.836 192 171 131
0.34778893 -0.007979825 0.83500004 193 172 132
0.35046467 -0.007989354 0.836 193 172 132
0.35314658 -0.007998902 0.837 193 172 132
0.35498548 -0.007989355 0.836 195 174 132
0.35681984 -0.007979827 0.83500004 192 171 129
0.3590796 -0.007979874 0.83500004 191 170 128
0.361773 -0.007989496 0.836 195 172 130
0.36360195 -0.007980024 0.83500004 191 167 125
0.3663027 -0.007989688 0.836 193 164 127
0.36812815 -0.007980257 0.83500004 175 144 113
0.37083635 -0.007989961 0.836 108 68 41
0.373551 -0.007999686 0.837 137 71 53
0.37717026 -0.008028549 0.84000003 118 63 48
0.38171035 -0.00807655 0.845 106 62 48
0.38673326 -0.008134134 0.851 103 62 48
0.39499015 -0.008258656 0.864 96 59 46
0.4106772 -0.008536153 0.89300007 89 64 52
0.5406037 -0.011041941 1.1550001 106 62 48
-0.036755655 -0.011944132 0.96700007 48 86 65
-0.033240028 -0.011635541 0.94200003 64 73 54
-0.030348891 -0.011512209 0.93200004 114 44 30
-0.027631465 -0.011438266 0.92600006 119 45 30
-0.02497373 -0.011376659 0.92100006 119 45 30
-0.022416309 -0.011352094 0.919 115 47 28
-0.019848032 -0.011315161 0.91600007 113 50 30
-0.017314963 -0.011290565 0.91400003 141 90 69
-0.014792723 -0.011265954 0.91200006 111 50 28
-0.012254329 -0.011216622 0.90800005 127 66 44
-0.009748453 -0.011179628 0.90500003 143 80 60
-0.0072427876 -0.011117912 0.90000004 108 45 25
-0.0047803074 -0.011093242 0.89800006 119 53 35
-0.002326106 -0.011056202 0.89500004 122 50 35
0.00011175886 -0.011019149 0.892 125 51 36
0.0025332775 -0.010982082 0.88900006 125 49 34
0.0049440144 -0.010957353 0.887 125 48 35
0.0073355366 -0.010920257 0.88400006 132 51 38
0.009710685 -0.010883146 0.88100004 128 46 33
0.012041956 -0.010821316 0.87600005 130 43 33
0.014362409 -0.010771826 0.87200004 141 49 40
0.016680209 -0.0107346745 0.869 181 84 75
0.018981598 -0.010697511 0.86600006 205 108 99
0.02126657 -0.010660333 0.86300004 187 99 85
0.023589851 -0.010647848 0.86200005 199 113 97
0.02593768 -0.010647702 0.86200005 218 166 140
0.028252596 -0.010635191 0.86100006 221 181 154
0.030597491 -0.0106350165 0.86100006 210 182 149
0.032942265 -0.010634829 0.86100006 208 183 147
0.035286915 -0.010634629 0.86100006 207 183 146
0.03758772 -0.010622064 0.86 206 182 142
0.039882936 -0.010609486 0.859 205 182 142
0.042172555 -0.010596895 0.85800004 205 184 144
0.044508442 -0.010596642 0.85800004 205 184 144
0.046898752 -0.010608726 0.859 205 184 146
0.0491797 -0.0105960965 0.85800004 205 184 146
0.051515047 -0.010595804 0.85800004 201 177 141
0.0538502 -0.0105955 0.85800004 203 179 143
0.05618516 -0.010595181 0.85800004 202 178 142
0.0584517 -0.010582502 0.85700005 201 177 141
0.06064165 -0.010557463 0.855 205 181 144
0.0629678 -0.0105571095 0.855 206 182 145
0.06521733 -0.010544395 0.85400003 205 182 142
0.06761936 -0.010556364 0.855 205 182 142
0.06994479 -0.010555972 0.855 204 181 141
0.072439 -0.01058026 0.85700005 202 179 139
0.07476935 -0.010579846 0.85700005 202 178 141
0.077009454 -0.010567073 0.85600007 201 177 140
0.07924385 -0.010554289 0.855 201 177 140
0.08137713 -0.010529153 0.85300004 202 179 139
0.083597355 -0.01051635 0.85200006 202 181 143
0.0859127 -0.010515879 0.85200006 202 181 143
0.088124186 -0.0105030555 0.851 200 179 141
0.09054248 -0.010514906 0.85200006 197 176 138
0.09296589 -0.010526744 0.85300004 196 175 137
0.09550611 -0.010550908 0.855 198 177 139
0.09759921 -0.010525704 0.85300004 201 180 142
0.09979825 -0.01051283 0.85200006 199 178 140
0.10199152 -0.010499947 0.851 201 180 142
0.10442415 -0.010511731 0.85200006 206 185 147
0.10673658 -0.010511166 0.85200006 202 181 143
0.10904869 -0.010510593 0.85200006 199 175 138
0.111360416 -0.010510009 0.85200006 200 176 139
0.11353837 -0.010497082 0.851 203 179 142
0.11584667 -0.010496481 0.851 202 178 141
0.11829347 -0.010508207 0.85200006 202 181 143
0.120179094 -0.010470589 0.84900004 202 180 144
0.122336626 -0.010457631 0.84800005 200 176 140
0.12448834 -0.010444668 0.84700006 197 173 137
0.12693363 -0.010456358 0.84800005 199 175 139
0.12923159 -0.010455711 0.84800005 201 177 140
0.13152914 -0.010455055 0.84800005 201 179 143
0.13414195 -0.010479048 0.85 202 180 144
0.13628362 -0.010466048 0.84900004 202 181 141
0.13841952 -0.0104530435 0.84800005 204 181 141
0.14038365 -0.010427707 0.846 198 177 137
0.14284252 -0.010439344 0.84700006 198 177 139
0.14547773 -0.0104632955 0.84900004 197 176 138
0.14760122 -0.010450268 0.84800005 198 177 139
0.14971891 -0.010437237 0.84700006 199 177 141
0.15183078 -0.010424201 0.846 199 178 140
0.1543012 -0.010435804 0.84700006 197 176 138
0.15659174 -0.010435079 0.84700006 196 174 138
0.15869433 -0.010422031 0.846 195 173 137
0.16098139 -0.0104212975 0.846 196 174 138
0.16346107 -0.010432879 0.84700006 194 172 136
0.16555434 -0.010419819 0.846 199 177 141
0.16744345 -0.010394443 0.84400004 197 176 138
0.16992463 -0.01040601 0.845 198 177 139
0.17200325 -0.010392944 0.84400004 199 178 140
0.17448907 -0.010404503 0.845 200 179 141
0.1767707 -0.010403745 0.845 200 179 141
0.17905198 -0.010402985 0.845 195 174 136
0.18154746 -0.010414532 0.846 198 177 139
0.18404798 -0.010426077 0.84700006 202 180 144
0.1861135 -0.0104129985 0.846 198 176 140
0.18839599 -0.010412229 0.846 194 174 140
0.19000195 -0.0103745395 0.84300005 200 180 146
0.19250369 -0.010386076 0.84400004 201 181 147
0.19477971 -0.010385306 0.84400004 202 182 148
0.19705535 -0.0103845345 0.84400004 197 176 144
0.19933067 -0.010383763 0.84400004 197 176 144
0.20160566 -0.010382992 0.84400004 201 181 147
0.20388027 -0.010382221 0.84400004 199 176 144
0.20591034 -0.010369151 0.84300005 195 174 142
0.20818163 -0.010368383 0.84300005 194 173 141
0.21045263 -0.010367616 0.84300005 198 177 145
0.21297562 -0.010379147 0.84400004 197 176 146
0.21499367 -0.010366086 0.84300005 192 171 141
0.21726374 -0.010365324 0.84300005 196 175 145
0.21927312 -0.010352271 0.84200007 195 174 144
0.22127683 -0.01033922 0.841 197 176 144
0.2235407 -0.010338468 0.841 202 181 149
0.22553581 -0.010325428 0.84000003 201 179 145
0.22752531 -0.010312392 0.83900005 193 171 137
0.22978301 -0.010311652 0.83900005 193 171 135
0.23204051 -0.010310917 0.83900005 194 172 136
0.23429778 -0.010310186 0.83900005 193 172 134
0.23683678 -0.0103217475 0.84000003 195 174 134
0.23938099 -0.010333314 0.841 194 173 133
0.24193038 -0.0103448825 0.84200007 196 175 137
0.24390489 -0.010331884 0.841 198 177 139
0.24558116 -0.01030661 0.83900005 194 173 135
0.24754196 -0.01029363 0.83800006 194 173 135
0.24979527 -0.01029294 0.83800006 194 172 136
0.25204846 -0.010292256 0.83800006 193 171 135
0.25399807 -0.010279299 0.837 189 168 130
0.25624835 -0.010278633 0.837 196 173 133
0.2591162 -0.0103025315 0.83900005 195 174 136
0.26168323 -0.010314159 0.84000003 191 170 132
0.26394132 -0.010313514 0.84000003 197 176 138
0.26588246 -0.010300601 0.83900005 197 176 138
0.26749858 -0.010275422 0.837 199 178 140
0.2694262 -0.010262532 0.836 197 176 138
0.27199838 -0.010274203 0.837 196 172 135
0.27392069 -0.0102613345 0.836 196 172 135
0.2761679 -0.0102607515 0.836 192 170 134
0.27774915 -0.010235633 0.83400005 192 170 134
0.28032684 -0.010247345 0.83500004 194 172 136
0.28257155 -0.0102467965 0.83500004 196 174 138
0.28515747 -0.01025853 0.836 197 175 139
0.28706136 -0.010245736 0.83500004 196 174 138
0.28895992 -0.010232954 0.83400005 195 174 136
0.2912024 -0.010232456 0.83400005 195 172 132
0.29344508 -0.010231971 0.83400005 196 173 133
0.29604247 -0.010243768 0.83500004 197 174 134
0.2982882 -0.01024331 0.83500004 192 169 129
0.30053416 -0.010242865 0.83500004 194 171 131
0.30241776 -0.0102301715 0.83400005 195 172 132
0.3046615 -0.010229757 0.83400005 197 174 134
0.30690557 -0.010229359 0.83400005 196 173 133
0.3087792 -0.010216712 0.83300006 192 171 131
0.3113946 -0.0102286115 0.83400005 192 171 131
0.31401566 -0.010240527 0.83500004 193 172 132
0.31626377 -0.010240193 0.83500004 196 175 135
0.3181308 -0.010227615 0.83400005 197 176 138
0.31999284 -0.010215055 0.83300006 194 173 135
0.3218499 -0.010202512 0.832 195 174 134
0.32409158 -0.010202251 0.832 194 173 133
0.32711822 -0.010226534 0.83400005 196 175 135
0.32936633 -0.010226311 0.83400005 196 175 135
0.33081967 -0.010201583 0.832 195 174 134
0.33306348 -0.0102014 0.832 194 173 133
0.33490482 -0.010188975 0.83100003 193 172 132
0.3379585 -0.0102133555 0.83300006 190 169 129
0.3397984 -0.010200972 0.832 194 173 133
0.3424558 -0.010213133 0.83300006 193 172 132
0.34387785 -0.010188533 0.83100003 190 169 129
0.3457063 -0.010176217 0.83000004 190 169 129
0.3479494 -0.010176184 0.83000004 194 171 131
0.35103697 -0.010200693 0.832 194 171 129
0.35328698 -0.010200705 0.832 193 172 130
0.35511053 -0.010188483 0.83100003 192 171 129
0.3569295 -0.010176282 0.83000004 194 171 129
0.3596094 -0.010188627 0.83100003 193 169 127
0.36186028 -0.010188738 0.83100003 198 166 123
0.36455017 -0.010201134 0.832 195 159 124
0.36636478 -0.010189035 0.83100003 114 70 46
0.3690622 -0.010201484 0.832 127 72 53
0.37221232 -0.010226221 0.83400005 106 62 48
0.37672147 -0.010287774 0.83900005 100 61 47
0.38171065 -0.010361619 0.845 98 64 49
0.38718802 -0.010447759 0.85200006 94 59 48
0.39636198 -0.010632038 0.86700004 92 64 55
0.4198752 -0.011196525 0.91300005 92 64 55
0.5537098 -0.014509422 1.1830001 97 63 48
-0.036869448 -0.014623321 0.97 48 86 65
-0.033204526 -0.014186375 0.94100004 65 74 55
-0.030381257 -0.014065997 0.933 116 47 33
-0.02769096 -0.013990824 0.92800003 119 44 31
-0.025027797 -0.013915632 0.92300004 122 46 31
-0.022440553 -0.013870573 0.92 117 48 30
-0.019891238 -0.013840573 0.91800004 121 55 37
-0.01737168 -0.013825629 0.91700006 146 93 72
-0.014825065 -0.013780515 0.91400003 106 48 25
-0.012294737 -0.013735382 0.9110001 116 58 35
-0.009769932 -0.013675153 0.90700006 117 56 36
-0.0072668833 -0.013614905 0.90300006 142 84 61
-0.004801569 -0.013599872 0.90200007 114 51 31
-0.0023364867 -0.013554664 0.89900005 120 56 38
0.000112259295 -0.01350944 0.896 121 53 35
0.0025446592 -0.013464198 0.89300007 124 52 37
0.004960703 -0.013418938 0.89000005 127 52 39
0.007360382 -0.013373661 0.887 124 47 34
0.009743688 -0.013328368 0.88400006 125 46 33
0.012096862 -0.013267979 0.88000005 127 44 34
0.014461138 -0.013237728 0.878 135 46 36
0.01677607 -0.013177306 0.874 137 48 38
0.019069148 -0.013116871 0.87000006 139 42 33
0.021340359 -0.013056416 0.86600006 168 72 63
0.02361706 -0.013011025 0.86300004 202 110 102
0.02590742 -0.012980695 0.86100006 193 109 93
0.028186781 -0.012950347 0.859 177 106 87
0.03045514 -0.012919984 0.85700005 207 169 142
0.032789007 -0.0129197575 0.85700005 213 180 151
0.03512275 -0.012919513 0.85700005 208 183 147
0.037500065 -0.012934329 0.85800004 205 182 142
0.03978982 -0.012918976 0.85700005 201 180 142
0.042073984 -0.012903612 0.85600007 205 182 142
0.04424878 -0.012858081 0.85300004 206 183 143
0.046680063 -0.012887905 0.855 205 184 146
0.049064744 -0.01290264 0.85600007 199 178 140
0.051394634 -0.012902283 0.85600007 205 181 144
0.05366157 -0.01288684 0.855 203 179 143
0.05592287 -0.012871381 0.85400003 200 178 142
0.05831492 -0.012886052 0.855 203 182 144
0.060499415 -0.0128554925 0.85300004 205 184 146
0.06274646 -0.012839991 0.85200006 205 181 144
0.06498782 -0.012824475 0.851 202 179 139
0.06738168 -0.012839085 0.85200006 205 182 142
0.06969893 -0.0128386095 0.85200006 205 182 142
0.072100446 -0.0128531875 0.85300004 202 179 139
0.07441989 -0.012852683 0.85300004 201 177 140
0.076919004 -0.012882297 0.855 204 180 143
0.07915067 -0.012866695 0.85400003 201 178 138
0.08137662 -0.012851083 0.85300004 200 179 139
0.08349872 -0.01282039 0.851 202 181 141
0.08560967 -0.012789689 0.84900004 200 179 139
0.08781298 -0.012774039 0.84800005 200 179 141
0.09022311 -0.012788504 0.84900004 198 177 139
0.092638366 -0.012802956 0.85 200 179 141
0.09505873 -0.012817392 0.851 202 181 143
0.09725536 -0.012801692 0.85 202 181 143
0.099329114 -0.012770921 0.84800005 204 183 145
0.10151152 -0.012755203 0.84700006 203 182 144
0.103933275 -0.012769588 0.84800005 199 178 140
0.10610956 -0.012753845 0.84700006 200 179 141
0.10853608 -0.012768206 0.84800005 197 176 138
0.110575534 -0.012737385 0.846 199 175 138
0.112870626 -0.012736668 0.846 201 177 140
0.115301505 -0.012750995 0.84700006 197 176 138
0.117876254 -0.012780362 0.84900004 201 180 142
0.11989531 -0.012749505 0.84700006 203 179 142
0.12190312 -0.01271864 0.845 199 175 138
0.1240467 -0.012702821 0.84400004 203 179 143
0.12663354 -0.0127321435 0.846 203 179 143
0.12892607 -0.012731354 0.846 203 179 142
0.13106309 -0.012715507 0.845 201 179 143
0.13335215 -0.012714701 0.845 200 178 142
0.13548027 -0.01269884 0.84400004 201 180 142
0.13776584 -0.012698019 0.84400004 200 179 141
0.14005102 -0.012697187 0.84400004 198 176 140
0.1423358 -0.012696348 0.84400004 199 178 140
0.14479154 -0.012710544 0.845 199 178 140
0.14673017 -0.012679609 0.84300005 201 179 143
0.1488343 -0.012663708 0.84200007 198 177 139
0.15129158 -0.012677882 0.84300005 195 174 136
0.15375386 -0.012692046 0.84400004 194 173 135
0.15603632 -0.012691166 0.84400004 198 177 139
0.15813078 -0.012675245 0.84300005 197 176 138
0.1606 -0.012689387 0.84400004 200 178 142
0.16307425 -0.012703524 0.845 201 179 143
0.16496645 -0.012672557 0.84300005 202 180 144
0.16684742 -0.012641585 0.841 200 179 141
0.16911943 -0.012640677 0.841 198 177 139
0.17139103 -0.012639765 0.841 199 178 140
0.17386876 -0.012653878 0.84200007 202 181 141
0.17614229 -0.012652957 0.84200007 198 177 139
0.17862736 -0.01266706 0.84300005 197 176 138
0.18068826 -0.012651106 0.84200007 200 179 141
0.18296066 -0.012650176 0.84200007 199 178 140
0.18523273 -0.012649245 0.84200007 199 178 140
0.18772708 -0.012663331 0.84300005 198 177 139
0.18955031 -0.012632352 0.841 199 178 140
0.19204669 -0.012646439 0.84200007 198 177 139
0.1943173 -0.0126455 0.84200007 202 181 143
0.19612059 -0.012614526 0.84000003 202 180 144
0.19862129 -0.0126286065 0.841 201 179 145
0.20064932 -0.012612654 0.84000003 197 177 143
0.20291317 -0.012611719 0.84000003 197 177 143
0.20493247 -0.012595772 0.83900005 203 182 150
0.20743993 -0.012609851 0.84000003 197 176 144
0.20970283 -0.012608918 0.84000003 195 174 142
0.21171309 -0.012592978 0.83900005 196 175 143
0.21371765 -0.012577042 0.83800006 197 176 144
0.21571653 -0.012561111 0.837 197 176 144
0.21797016 -0.012560191 0.837 198 177 147
0.22022356 -0.012559275 0.837 196 175 145
0.22300826 -0.0125883715 0.83900005 197 176 146
0.224998 -0.012572457 0.83800006 194 173 143
0.22698209 -0.012556549 0.837 195 174 142
0.22923443 -0.0125556495 0.837 197 174 142
0.23148654 -0.0125547545 0.837 198 176 142
0.2334592 -0.012538866 0.836 196 174 140
0.23542626 -0.012522988 0.83500004 195 173 137
0.23795697 -0.012537109 0.836 195 173 137
0.24049294 -0.012551236 0.837 193 171 135
0.24274404 -0.012550371 0.837 194 173 135
0.24470228 -0.0125345215 0.836 196 175 137
0.246655 -0.012518682 0.83500004 196 175 137
0.24860217 -0.012502852 0.83400005 190 169 131
0.25084463 -0.012502024 0.83400005 191 170 132
0.25339043 -0.012516193 0.83500004 193 172 134
0.25532916 -0.012500392 0.83400005 193 172 132
0.25757128 -0.012499592 0.83400005 195 172 132
0.26043642 -0.012528774 0.836 192 169 129
0.26299793 -0.012542976 0.837 194 170 133
0.26493102 -0.01252722 0.836 196 172 135
0.26653913 -0.012496492 0.83400005 196 172 136
0.2684587 -0.012480764 0.83300006 194 172 136
0.27069786 -0.01248003 0.83300006 198 174 137
0.2726094 -0.012464327 0.832 195 171 134
0.27451554 -0.012448638 0.83100003 194 170 133
0.2764164 -0.012432965 0.83000004 196 172 136
0.27898335 -0.012447266 0.83100003 196 174 138
0.28155574 -0.012461577 0.832 196 175 137
0.28413358 -0.012475902 0.83300006 199 178 140
0.28568563 -0.012445312 0.83100003 194 173 135
0.2879199 -0.012444691 0.83100003 192 171 131
0.2905035 -0.012459059 0.832 198 175 135
0.29309273 -0.012473446 0.83300006 199 176 136
0.29533288 -0.012472871 0.83300006 195 172 132
0.297216 -0.012457342 0.832 195 172 132
0.29945394 -0.012456803 0.832 194 171 131
0.30169207 -0.012456283 0.832 197 174 134
0.30393046 -0.01245578 0.832 198 175 135
0.30616915 -0.012455297 0.832 198 175 135
0.30803746 -0.012439862 0.83100003 195 174 134
0.30990067 -0.0124244485 0.83000004 195 174 134
0.312511 -0.012438994 0.83100003 199 176 136
0.3151271 -0.012453559 0.832 193 172 132
0.3173675 -0.012453175 0.832 194 173 133
0.31884003 -0.01242288 0.83000004 197 176 136
0.3206891 -0.012407575 0.82900006 195 174 134
0.32292274 -0.012407259 0.82900006 197 176 136
0.32554907 -0.012421932 0.83000004 197 176 136
0.32818133 -0.012436627 0.83100003 196 175 135
0.33042186 -0.012436381 0.83100003 194 173 133
0.33266297 -0.012436157 0.83100003 194 171 131
0.33450165 -0.012420994 0.83000004 195 172 132
0.33714694 -0.0124357855 0.83100003 191 170 130
0.33898148 -0.012420674 0.83000004 194 173 133
0.3416335 -0.012435517 0.83100003 193 172 134
0.34305015 -0.012405493 0.82900006 191 170 132
0.34528974 -0.012405426 0.82900006 193 170 130
0.3471109 -0.012390423 0.82800007 189 166 126
0.34977123 -0.012405375 0.82900006 189 166 124
0.3524378 -0.012420355 0.83000004 191 168 126
0.35468325 -0.012420401 0.83000004 191 168 126
0.35606954 -0.012390547 0.82800007 192 168 126
0.35787857 -0.012375686 0.827 202 171 134
0.36011857 -0.01237582 0.827 174 137 105
0.36367404 -0.012420881 0.83000004 106 65 37
0.36592415 -0.012421079 0.83000004 116 70 56
0.36906242 -0.01245124 0.832 110 64 50
0.37310517 -0.012511364 0.836 104 65 51
0.37761977 -0.012586492 0.841 97 62 49
0.38306615 -0.012691592 0.84800005 99 64 51
0.3894606 -0.012826665 0.85700005 92 59 48
0.40001968 -0.013096489 0.87500006 95 69 60
0.55700135 -0.017918024 1.197 104 65 51
0.55324244 -0.017694257 1.182 97 62 49
-0.037059203 -0.017354392 0.975 48 86 65
-0.03320426 -0.016749507 0.94100004 60 76 57
-0.030381016 -0.016607378 0.933 115 45 34
-0.027690744 -0.016518623 0.92800003 119 44 31
-0.025054716 -0.016447647 0.924 121 44 31
-0.02248916 -0.016412247 0.92200005 122 46 29
-0.019912748 -0.016359026 0.919 116 47 29
-0.017390488 -0.016341383 0.91800004 117 51 33
-0.014841169 -0.016288117 0.915 110 49 29
-0.012308136 -0.01623483 0.91200006 142 83 63
-0.009780628 -0.016163718 0.90800005 135 76 56
-0.007282921 -0.016110387 0.90500003 119 63 40
-0.0048068543 -0.016074834 0.90300006 121 67 44
-0.002336468 -0.016003659 0.89900005 124 67 47
0.00011238368 -0.015968064 0.897 137 81 58
0.0025474883 -0.015914647 0.89400005 109 48 28
0.004971811 -0.015879013 0.892 119 55 37
0.0073686223 -0.015807755 0.8880001 124 56 38
0.0097546335 -0.015754279 0.88500005 123 53 38
0.01212426 -0.01570078 0.882 125 49 34
0.014493965 -0.015665064 0.88000005 123 46 33
0.016833521 -0.015611525 0.87700003 130 49 36
0.019134752 -0.01554017 0.873 130 45 35
0.021414116 -0.015468792 0.869 133 46 36
0.023698974 -0.015415199 0.86600006 135 46 36
0.025997484 -0.015379387 0.864 151 59 50
0.028219374 -0.015307956 0.86 203 112 100
0.030454902 -0.0152543085 0.85700005 197 109 95
0.032712232 -0.015218441 0.855 186 97 87
0.034999527 -0.015200355 0.85400003 211 138 117
0.03736865 -0.015217848 0.855 226 180 154
0.03965022 -0.0151997255 0.85400003 209 178 147
0.041975345 -0.015199382 0.85400003 207 181 148
0.044144686 -0.015145627 0.851 205 181 145
0.04651592 -0.015163045 0.85200006 204 180 144
0.048835095 -0.015162646 0.85200006 206 182 145
0.051094037 -0.015144431 0.851 203 179 142
0.053347345 -0.0151262 0.85 207 186 148
0.05559502 -0.015107953 0.84900004 205 184 146
0.05797345 -0.015125276 0.85 204 183 145
0.060215257 -0.015106993 0.84900004 199 178 140
0.062451396 -0.015088692 0.84800005 200 179 141
0.064758234 -0.015088169 0.84800005 203 180 140
0.06714391 -0.015105419 0.84900004 202 179 139
0.069371186 -0.015087072 0.84800005 202 178 138
0.07176181 -0.015104287 0.84900004 201 178 138
0.07407036 -0.015103692 0.84900004 203 180 140
0.076558575 -0.01513866 0.851 208 185 145
0.07887204 -0.015138032 0.851 205 184 146
0.08108982 -0.015119601 0.85 202 181 143
0.08320375 -0.015083368 0.84800005 204 183 143
0.085306525 -0.01504712 0.846 201 180 140
0.08750169 -0.015028648 0.845 203 182 142
0.08979737 -0.015027944 0.845 200 179 139
0.092201754 -0.0150450105 0.846 200 179 141
0.09449953 -0.015044276 0.846 202 181 143
0.09679698 -0.015043524 0.846 200 179 141
0.09885987 -0.0150072 0.84400004 203 182 142
0.101271085 -0.015024203 0.845 201 180 142
0.10344228 -0.015005632 0.84400004 199 178 138
0.105732985 -0.0150048295 0.84400004 203 179 142
0.108023345 -0.015004012 0.84400004 195 174 136
0.11031335 -0.015003178 0.84400004 204 180 143
0.11273642 -0.01502011 0.845 203 179 142
0.11489231 -0.015001478 0.84400004 201 180 142
0.11732008 -0.015018381 0.845 199 178 140
0.11946982 -0.014999726 0.84400004 198 177 139
0.121758044 -0.014998832 0.84400004 199 178 140
0.12404586 -0.014997925 0.84400004 199 175 138
0.12633333 -0.014997008 0.84400004 204 180 143
0.12846804 -0.014978311 0.84300005 204 183 145
0.1305969 -0.014959605 0.84200007 201 179 143
0.13287781 -0.014958658 0.84200007 202 180 144
0.13483731 -0.014922171 0.84000003 203 181 145
0.13694881 -0.014903442 0.83900005 202 180 144
0.13922043 -0.014902467 0.83900005 200 178 142
0.14166032 -0.014919245 0.84000003 205 184 146
0.14393388 -0.014918251 0.84000003 200 179 141
0.146033 -0.01489949 0.83900005 197 175 139
0.14830308 -0.014898481 0.83900005 198 177 139
0.15075223 -0.0149152195 0.84000003 199 178 140
0.15302423 -0.014914192 0.84000003 198 177 139
0.15548071 -0.014930912 0.841 198 177 139
0.15775463 -0.01492987 0.841 202 181 143
0.16002817 -0.014928822 0.841 200 178 142
0.16210836 -0.014910018 0.84000003 202 180 144
0.16398703 -0.014873461 0.83800006 200 178 142
0.1662513 -0.014872399 0.83800006 200 178 142
0.16871624 -0.014889075 0.83900005 198 177 139
0.17077866 -0.014870257 0.83800006 200 179 141
0.17304178 -0.014869179 0.83800006 198 177 137
0.1753045 -0.014868097 0.83800006 202 181 143
0.17799066 -0.014902496 0.84000003 200 179 139
0.18004347 -0.014883665 0.83900005 199 178 138
0.18230776 -0.01488257 0.83900005 198 177 139
0.18435174 -0.014863739 0.83800006 198 177 137
0.18661262 -0.014862642 0.83800006 198 177 137
0.18909854 -0.014879277 0.83900005 195 174 134
0.19113334 -0.014860444 0.83800006 199 178 140
0.19339316 -0.014859344 0.83800006 199 178 140
0.1949522 -0.01480505 0.83500004 198 176 140
0.19743942 -0.01482168 0.836 198 176 140
0.1992151 -0.014785126 0.83400005 196 174 140
0.20170435 -0.0148017565 0.83500004 203 181 147
0.20395441 -0.01480066 0.83500004 202 180 146
0.2064511 -0.014817288 0.836 197 177 143
0.20895287 -0.014833917 0.837 199 179 145
0.21095504 -0.0148151 0.836 201 181 147
0.21295153 -0.0147962915 0.83500004 201 178 146
0.21494237 -0.014777487 0.83400005 198 177 145
0.21718796 -0.014776408 0.83400005 199 178 148
0.21969634 -0.014793046 0.83500004 199 178 148
0.22167826 -0.014774256 0.83400005 198 177 147
0.22392304 -0.014773189 0.83400005 193 172 142
0.22616757 -0.014772126 0.83400005 197 176 146
0.2286857 -0.014788778 0.83500004 193 172 140
0.23093244 -0.014787726 0.83500004 195 174 142
0.23289973 -0.014768971 0.83400005 200 177 145
0.23486139 -0.0147502255 0.83300006 204 182 148
0.23710215 -0.014749196 0.83300006 197 175 141
0.23934269 -0.014748174 0.83300006 192 170 134
0.24158306 -0.014747162 0.83300006 191 169 133
0.24353054 -0.014728453 0.832 193 171 135
0.24576789 -0.014727458 0.832 188 166 130
0.247707 -0.014708771 0.83100003 189 167 131
0.25024217 -0.014725498 0.832 196 175 137
0.2521757 -0.014706835 0.83100003 199 175 138
0.25379753 -0.014670489 0.82900006 196 173 133
0.25602624 -0.01466955 0.82900006 195 172 132
0.2588779 -0.014704012 0.83100003 196 173 133
0.26174024 -0.0147384815 0.83300006 197 173 136
0.26366258 -0.014719882 0.832 197 173 136
0.26525995 -0.014683609 0.83000004 194 170 133
0.2671688 -0.014665043 0.82900006 194 170 133
0.2693972 -0.0146641815 0.82900006 195 171 134
0.27162567 -0.014663335 0.82900006 197 173 136
0.27319342 -0.01462713 0.827 193 172 132
0.2750835 -0.014608629 0.82600003 195 174 134
0.27730405 -0.014607834 0.82600003 194 173 133
0.279863 -0.014624737 0.827 195 174 134
0.28208634 -0.0146239735 0.827 199 178 140
0.28430977 -0.014623225 0.827 198 177 137
0.2861869 -0.014604816 0.82600003 194 173 131
0.28840792 -0.0146041075 0.82600003 194 173 133
0.29098094 -0.014621096 0.827 196 173 133
0.29355955 -0.014638104 0.82800007 196 173 133
0.29542926 -0.014619772 0.827 197 174 134
0.2972938 -0.014601464 0.82600003 198 175 135
0.29987845 -0.014618533 0.827 200 177 137
0.3021034 -0.014617944 0.827 196 175 135
0.30432865 -0.014617379 0.827 199 176 136
0.30618352 -0.014599159 0.82600003 194 173 133
0.3084067 -0.01459864 0.82600003 193 172 134
0.3110063 -0.014615817 0.827 196 173 133
0.3132329 -0.014615344 0.827 194 171 131
0.31545988 -0.014614896 0.827 194 171 131
0.31691894 -0.014579129 0.82500005 198 175 135
0.3191414 -0.014578733 0.82500005 199 176 134
0.32136425 -0.014578364 0.82500005 199 176 136
0.32397985 -0.01459569 0.82600003 196 175 135
0.32620645 -0.014595374 0.82600003 197 174 134
0.3288311 -0.014612753 0.827 197 174 134
0.33066115 -0.014594825 0.82600003 194 171 131
0.33248636 -0.014576926 0.82500005 192 169 129
0.3347125 -0.014576723 0.82500005 191 168 128
0.3365309 -0.014558884 0.82400006 193 170 130
0.3391667 -0.014576411 0.82500005 193 170 130
0.340981 -0.014558632 0.82400006 198 175 135
0.34362364 -0.014576224 0.82500005 193 170 130
0.3458532 -0.014576177 0.82500005 188 165 123
0.34808356 -0.014576165 0.82500005 192 169 127
0.35116392 -0.014611521 0.827 194 171 129
0.352974 -0.014593907 0.82600003 190 167 127
0.35434946 -0.01455866 0.82400006 196 171 135
0.35658047 -0.014558784 0.82400006 160 120 93
0.35881242 -0.014558945 0.82400006 111 67 43
0.3619216 -0.014594478 0.82600003 118 68 52
0.3654835 -0.014647719 0.82900006 109 65 51
0.36906266 -0.014700999 0.832 102 61 48
0.37355176 -0.0147896595 0.837 98 61 48
0.37806913 -0.014878365 0.84200007 95 62 51
0.38351825 -0.015002454 0.84900004 94 61 50
0.39082432 -0.015197278 0.86 90 59 50
0.4018488 -0.015533531 0.87900007 82 65 55
0.5514182 -0.020943483 1.1850001 98 61 48
0.55053616 -0.020434879 1.156 89 98 91
-0.037438963 -0.020215252 0.9850001 46 87 65
-0.03330982 -0.019374143 0.94400007 56 79 59
-0.030445864 -0.01918974 0.93500006 110 45 33
-0.027750168 -0.019087406 0.93000007 117 45 31
-0.025108716 -0.019005567 0.92600006 119 43 28
-0.022537736 -0.018964753 0.924 117 45 30
-0.01997757 -0.018923912 0.92200005 121 53 35
-0.017428214 -0.018883044 0.92 125 59 43
-0.014873472 -0.018821629 0.91700006 117 53 35
-0.012321518 -0.018739661 0.91300005 108 49 30
-0.009802081 -0.018678194 0.91 138 79 60
-0.007298948 -0.0186167 0.90700006 119 62 42
-0.004817456 -0.01857571 0.90500003 102 49 26
-0.0023416444 -0.018493643 0.901 139 85 62
0.00011275851 -0.018473126 0.90000004 142 88 65
0.0025560134 -0.018411536 0.897 103 49 26
0.004988487 -0.018370448 0.89500004 149 91 68
0.007393447 -0.018288285 0.89100003 125 62 42
0.00978761 -0.018226625 0.8880001 114 48 30
0.012151641 -0.018144418 0.88400006 120 48 33
0.014526772 -0.018103233 0.882 131 57 42
0.016852563 -0.018020978 0.878 124 47 34
0.019178415 -0.017959228 0.87500006 128 47 34
0.021512488 -0.017917978 0.873 126 44 31
0.023780853 -0.017835656 0.869 132 45 33
0.026057426 -0.01777384 0.86600006 140 51 41
0.028284742 -0.01769148 0.86200005 135 46 36
0.0305257 -0.017629622 0.859 149 56 44
0.032788455 -0.017588267 0.85700005 193 100 88
0.035040192 -0.017546888 0.855 202 114 98
0.037324607 -0.017526014 0.85400003 191 108 90
0.039557006 -0.017484596 0.85200006 173 113 88
0.04182751 -0.017463678 0.851 220 180 153
0.044092413 -0.01744274 0.85 212 184 152
0.046406303 -0.017442307 0.85 207 181 148
0.048720013 -0.017441845 0.85 205 180 143
0.05091346 -0.017400328 0.84800005 206 182 145
0.053158592 -0.01737931 0.84700006 206 182 145
0.055463567 -0.017378788 0.84700006 203 182 144
0.057768326 -0.01737825 0.84700006 202 181 143
0.060072873 -0.017377686 0.84700006 204 183 145
0.062377203 -0.017377105 0.84700006 199 178 138
0.06460492 -0.017355986 0.846 202 179 139
